# .PCD v.7 - Point Cloud Data file format
VERSION .7
FIELDS x y z
SIZE 4 4 4
TYPE F F F
COUNT 1 1 1
WIDTH 1584
HEIGHT 1
VIEWPOINT 0 0 0 1 0 0 0
POINTS 1584
DATA ascii
0.4660301 0.2144527 1.022488
0.3431216 0.2880639 1.022746
0.3580716 0.2379429 0.8780107
-0.3270927 0.2717274 2.287522
-0.4846339 0.4902154 1.950852
-1.204396 -0.6157425 2.783546
0.8714472 -0.7395635 2.185384
0.04863859 -0.0797229 2.41503
0.01340757 -0.1121637 2.356539
0.8142993 -0.6114795 2.497904
1.269111 -0.3749704 2.891636
1.263402 -0.4482486 2.764613
0.1627192 0.4646711 2.655683
-0.8597227 0.08048914 2.140911
0.4294196 0.207615 0.9117907
0.4435654 0.2197294 1.006543
0.4173833 0.2234877 1.013676
-0.1818116 0.6016684 1.855883
-0.2008885 -0.7588053 2.46366
-0.2220664 -0.8027551 2.349895
0.4481995 0.7470902 2.317455
0.4379291 0.6804735 2.399438
0.3484329 0.2576389 0.968287
0.4061409 -0.2706811 3.078305
0.3179736 0.3243132 0.9132437
0.3547805 0.5779331 2.409232
0.369428 0.4962752 2.650387
-0.1516992 0.4651032 1.935967
-0.2948758 -0.5045278 2.702902
-0.9434518 -0.8017259 2.747588
-0.8194233 0.3061843 1.948928
0.3342126 0.2368604 0.7021697
0.3470114 0.2462465 0.8041198
0.5879579 -0.4145206 3.036719
-0.3757063 -0.4088727 2.64861
-0.5901448 -0.2981517 2.336168
-0.9083844 -0.3864666 2.630895
0.6578355 0.1403774 2.940179
-0.7862164 -0.03549729 2.236754
-0.9087136 -0.1863284 2.468946
-0.00201477 0.2195033 2.135374
0.217851 -0.3426019 3.16646
0.9874698 0.3707156 2.612677
1.464753 0.01721296 3.248219
0.0687438 0.6087524 2.168839
0.1610688 0.4802051 2.457857
-0.5335202 0.472529 1.980888
1.47238 -0.01192147 3.321019
0.2184335 -0.1936811 3.195482
0.4726568 0.4019035 2.304607
-0.1593846 0.4800993 2.002692
1.078931 -0.3570622 2.858948
1.250657 -0.4797957 2.74279
0.1800139 -0.6018238 2.789214
0.03809958 -0.5705718 2.789322
-0.2957321 -0.03016414 2.410255
0.7001867 0.5968433 2.592107
-0.7891014 0.3631098 2.053973
-0.8838051 0.4109621 1.870716
-0.3920944 -0.4989381 2.697382
-0.5078441 -0.5264331 2.70116
-0.4478785 -0.7147589 2.701813
-0.6083463 -0.735289 2.777616
0.5312022 0.6811919 2.085948
0.3490507 0.2589576 0.9712055
-0.2823255 0.4491775 2.020512
-0.4849961 0.451582 2.025191
0.8315126 -0.4137802 3.080579
0.644348 -0.4047733 2.445886
0.5150977 -0.3786582 2.902447
0.5804918 0.1243242 2.589075
-0.500752 -0.8091682 2.463547
0.3036964 -0.5358478 2.392962
0.08799171 0.1837756 2.823884
-0.6247725 -0.3126376 2.459532
1.278314 -0.556381 2.915846
0.9438978 -0.5568889 2.491586
-0.3589269 0.1405811 2.228776
-0.3666719 0.09003922 2.251631
0.5680776 -0.5430688 2.328931
0.2152904 -0.3423068 3.159002
0.1739257 -0.367621 2.996632
-1.274804 -0.1159929 2.648998
-0.9127407 -0.1898403 2.476306
0.3346232 0.2373003 0.7041494
0.3420536 0.271697 0.8499838
0.3582448 0.2301049 0.8424313
-1.155226 -0.3455646 2.718975
-1.143068 -0.4920199 2.807211
-0.07139816 -0.6760499 2.517518
-0.8617135 0.080881 2.147976
-0.8303772 -0.1793009 2.53258
-0.3419391 -0.005976069 2.384425
0.1547912 0.4433452 2.533335
1.437713 0.03608502 3.241788
0.3671722 0.4946686 2.644591
0.1596204 0.4528089 2.521304
-0.03714671 0.1249123 2.171121
-0.8570197 0.6010451 1.979541
-0.5357781 0.4726757 1.986888
-0.09024993 0.5805908 1.86426
1.478265 -0.01108736 3.333633
-0.9948436 -0.7715352 2.867933
-1.309047 -0.7023118 2.910408
-0.2246448 -0.8072347 2.353034
-0.5347799 -0.2818864 2.572646
-0.3204269 -0.3485615 2.582231
-0.5115446 -0.4184702 2.609439
-1.044737 -0.259493 2.589146
-1.236499 -0.4565159 2.718986
0.1804147 -0.3728394 3.066308
0.2245085 -0.4560407 2.688455
0.004639173 -0.000514171 2.384225
0.1863108 0.8369499 2.653817
0.05868428 0.6651425 2.164951
0.1035277 0.653729 2.142834
0.8091246 -0.6531717 2.319476
0.617074 -0.7377865 2.156611
-0.1246014 -0.2137638 2.416395
-1.120643 0.1537012 2.366683
-1.171054 0.01085724 2.473141
-0.6682611 -0.526999 1.592847
1.199569 -0.5542976 2.565868
0.9319964 -0.5512872 2.55068
1.069475 -0.6316313 2.406456
-0.6869365 -0.1863813 2.357852
-0.7458544 0.3086186 2.013871
-1.006089 0.3408496 2.22228
0.3424034 0.2715465 0.8509044
0.1744031 -0.5989571 2.776202
0.2333231 -0.5961745 2.374487
-0.8913752 0.3736701 2.054938
0.5249792 -0.6389052 2.430564
-0.7554814 0.3016382 2.090917
-0.741047 0.2080728 2.158279
-0.01877808 0.02192969 2.346223
0.1948532 0.3739085 2.817894
0.3660579 0.5002963 2.62397
0.5501021 0.6804882 2.116672
0.3709787 0.2565422 1.050342
-0.4206562 0.3106707 2.165936
-0.03592412 0.6021298 2.13726
-0.4027397 0.6188602 1.953976
-0.3301798 -0.6727502 2.624928
-0.9138105 -0.190695 2.478661
-0.4167032 -0.8090762 2.40828
-0.2422954 -0.05326586 2.298514
-0.0194493 -0.1205887 2.373366
0.3501238 0.2491743 0.8131664
0.3417507 0.2617107 0.8721924
-0.7827834 0.4561148 1.932779
0.8998582 -0.6730788 2.316431
-0.4856285 0.4510814 2.020112
-0.6506467 0.470317 2.007922
-0.513773 0.3884384 2.064711
-0.6982219 0.361939 2.064606
-0.8013741 0.5626539 1.853909
-0.5385376 0.6230745 1.894439
-0.6559693 0.6102647 1.927834
-0.4983878 0.5113739 1.965192
-0.2301205 0.5495512 1.826686
-0.4154462 0.6181005 1.878613
-0.2897063 -0.7573401 2.528909
-0.1948313 -0.7739754 2.355298
-0.3952041 0.06992617 2.315769
0.7244809 -0.7236544 2.159259
-0.03689906 0.1261883 2.179777
-0.1142345 0.01798768 2.263258
-0.2343909 0.01801475 2.324967
0.2600604 -0.7112675 2.518154
-0.004074082 -0.6486609 2.344933
-0.0942044 0.509959 1.700367
-0.02580011 0.5030605 1.78395
0.377783 -0.671014 2.28634
0.3128614 -0.7693659 2.321826
-0.3105256 0.3570541 2.210954
-0.1243118 0.2701439 2.029477
-0.2424535 0.417939 1.973489
0.4123155 0.6661218 2.29176
-0.006834741 0.4994993 2.287522
0.3746841 0.2500228 1.039086
0.1762998 -0.6002039 2.784026
0.5875399 -0.622798 2.502864
0.541792 -0.3847393 2.803959
-1.296774 -0.6917929 2.880432
-0.6821986 -0.7668391 2.815901
-0.916416 -0.1885114 2.483394
0.3534804 0.2255683 0.8295712
0.3582363 0.2354461 0.8759739
0.3426431 0.2702856 0.8510862
0.3370724 0.2746652 0.9303863
-0.5215675 0.488045 1.995251
-0.4827458 0.4460306 2.00247
0.3468461 0.258375 0.915827
0.343392 0.2721487 0.9657443
0.3489023 0.2469004 0.9203758
0.3490175 0.2577091 0.9723827
0.3317224 0.3148548 1.009262
0.3407905 0.2878937 0.9863771
0.1683893 -0.5972661 2.76562
-0.1921585 0.4557727 1.969183
-0.2018505 0.4238953 1.937338
0.3400524 0.2954791 1.024323
0.3415629 0.3016814 1.083385
0.3244931 0.26666 1.003631
-0.1763279 0.01660698 2.353127
0.4002365 0.6140118 2.440325
1.466977 0.02848476 3.289046
-0.2974802 -0.6591693 2.398075
0.5628188 -0.6923437 2.154096
0.3753341 0.5378176 2.544945
0.3663925 0.5017185 2.622439
-0.2966639 0.2474617 2.105313
0.8408975 -0.6953195 2.186103
-0.3095849 0.5922433 1.88002
-0.08658827 0.5723338 1.880996
-0.1736342 0.5235861 1.789463
-0.9256451 -0.1925085 2.507628
1.153548 -0.006016175 2.575597
0.0560536 0.1131797 2.410938
-0.2097163 -0.73921 2.373742
0.2008557 -0.5918525 2.784919
0.3462577 0.260081 0.9175255
0.2784461 0.5398734 2.4479
0.3672898 0.5359643 2.544396
0.2753689 0.527294 2.479647
-1.249681 -0.6323644 2.937104
-0.009553741 0.4948062 2.253668
0.9193056 0.5105206 2.382428
1.123733 0.466846 2.612664
1.025941 0.2570633 2.360097
1.311052 0.05673717 3.130319
0.1521172 0.4422123 2.489583
0.3079884 0.4312878 2.222596
1.287869 0.06360312 3.091736
0.3711578 0.5929012 2.042837
0.1594183 -0.3702262 2.854766
0.1762749 -0.5845348 2.737088
-0.03556959 0.5943422 2.142242
0.01479632 0.3338597 2.348676
0.3755303 0.2451269 1.025575
1.270138 0.1483037 3.188729
-0.7919018 0.6059564 1.96534
0.3337609 0.3306586 1.170418
-0.7051226 -0.5216219 1.564401
-0.5971797 0.5569947 1.923708
-0.4552291 0.6491473 1.855748
-0.08876697 0.6216143 1.844022
-0.08974732 0.6200897 1.841428
-0.8202685 0.4602352 1.897019
-0.2461017 0.285844 2.094431
-0.7073174 0.4632439 2.022454
-0.7744744 -0.3466143 1.604863
-0.5151212 0.4389438 2.018128
-0.8618243 0.52226 2.052686
-0.006693886 0.3273611 2.12643
-0.5299328 0.3457821 1.955237
-0.1058135 0.171397 2.140414
-0.1668619 0.2026688 2.152056
-0.3139929 0.2919445 2.123015
-0.1486756 0.526853 1.84717
-0.04860434 0.5603027 1.908916
0.3411956 0.3139102 1.164879
0.3518783 0.2556604 0.8566517
-0.5148636 0.4646522 2.006583
0.3561437 0.2365608 0.8718922
-0.09201565 0.5480376 1.900571
-0.6408553 -0.4737976 1.425187
0.3472725 0.2560311 0.8769295
0.3678588 0.258999 1.06046
-0.5001515 0.5108225 1.973606
-0.684471 0.5644045 1.954527
-0.542557 0.5062497 1.98839
-0.8065405 0.640203 1.945982
-0.243475 0.4234398 1.991462
-0.7716396 0.5492809 2.013319
-0.7058002 0.4953266 2.027964
-0.03521312 0.3675768 2.061048
-0.141983 0.3626556 1.923072
-0.5157919 0.4396423 2.021149
-0.8148308 0.4492042 2.126071
-0.2986059 0.2501106 2.093319
-0.2941688 0.2566561 2.100441
-0.05980256 0.2936626 2.061629
-0.05937886 0.2984724 2.083719
-0.7102028 0.4064468 2.086661
-0.3832017 0.3059264 2.296251
-0.460406 0.1891053 1.773837
-0.569796 0.2273242 2.17334
-0.006758935 0.2213974 2.151442
0.8027506 -0.7377797 2.181667
-0.5476444 0.2052261 2.153127
-0.001958264 0.3190337 2.154813
-0.865033 0.2689434 1.995203
-0.8194012 0.2496512 2.134243
-0.8082741 0.1873033 2.234623
-0.8095772 0.2913008 2.021033
0.2805454 0.6613757 2.112471
0.3514819 -0.7257512 2.261272
0.1914593 0.673256 2.254663
0.1875765 0.6702957 2.24457
-0.8687717 0.1785983 2.083533
0.1596663 -0.7675843 2.308716
-0.4648179 0.08719392 2.306763
0.04193315 0.01151085 2.27618
-0.4615366 0.08479188 2.291915
0.451905 0.744675 2.331587
-1.037456 0.1748012 2.29428
-0.6475936 -0.029036 2.304635
-0.7051506 0.01050766 2.360135
-0.8401686 -0.0624266 2.432621
-0.6669765 0.0103787 2.2352
-0.1223708 -0.1292463 2.435421
-0.5973834 -0.8511058 2.376856
-0.8495325 -0.1843942 2.411483
-0.3884645 -0.04969132 2.372322
-0.1874158 -0.06169851 2.397974
-0.1882138 -0.0627884 2.413249
-1.318141 0.04693511 2.731853
-0.3579719 -0.1039359 2.418623
0.1372238 -0.7173043 2.319745
-0.01783807 -0.2710243 2.441738
-0.2539564 -0.2540447 2.513532
-0.8974716 0.6013005 2.017975
-0.786629 0.6075568 1.954794
-0.6050331 0.477726 2.022018
-0.1059592 0.4536521 1.890136
0.5527859 0.6797991 2.119493
-0.01258033 0.2625676 2.04548
0.5542238 0.6813515 2.118609
-0.9148744 0.4484706 2.096653
-0.6762905 -0.5090991 1.577922
-0.6449348 -0.5295979 1.558204
-0.671909 -0.4670936 1.421661
0.3485116 0.2498607 0.9230714
0.3417146 0.2759169 0.8343311
0.3520065 0.2296266 0.7724835
0.3722619 0.2275923 0.9199226
0.3734392 0.2601071 1.064043
-0.4134116 0.1739214 2.315708
-0.2487452 0.0876716 2.354307
-0.247273 0.1576705 2.108234
0.1892819 0.6878241 2.183596
0.225701 0.6885956 2.224188
-0.60243 0.1238745 2.236048
-0.02522702 0.5825433 2.138319
0.3549556 0.2397808 0.9064589
0.8074097 -0.7929151 2.310637
0.727155 -0.7160426 2.08064
-0.03303654 0.2195572 2.069439
-0.4909224 0.2894113 2.166384
-0.4992051 0.1925979 2.253237
-0.01282332 0.1408701 2.099723
-0.1209637 0.01745815 2.422113
-0.0401041 -0.006059793 2.308663
-0.03950171 -0.008504126 2.273341
-0.8428132 0.08498402 2.050337
0.007556221 -0.0005530116 2.300841
-0.5357957 -0.1383279 2.466001
0.3703316 0.2214602 0.8853688
-0.7232072 0.1541458 2.125438
-0.5233091 0.3363852 2.187877
-0.4353472 0.2697404 2.191733
-0.796708 0.4270977 2.107868
-0.03693131 0.2253343 2.158851
-0.2641623 0.1962866 2.160553
-0.7183353 0.2823598 2.107652
0.1159036 0.6913251 2.172674
-0.9422593 0.3324113 2.157377
0.02308537 0.1776503 2.181925
-0.1829454 0.1708297 2.162468
0.6431179 -0.7166854 2.204921
0.6483064 -0.7212624 2.223852
0.1211971 -0.7835457 2.230254
-0.7210955 0.184127 2.14753
-0.2861698 0.129545 2.224001
0.3128625 -0.7134484 2.219736
-0.6972463 -0.3763797 1.495313
-0.3112746 0.6521903 1.837226
-0.5823147 0.6602852 1.887912
0.3489761 0.2706806 0.8342925
-0.5113091 -0.04964495 2.354929
-0.1619855 -0.02182397 2.380517
0.2209041 0.5543776 2.119008
0.005145895 -0.1505424 2.478
-0.9095441 -0.08717749 2.256552
0.4728285 -0.6130985 2.236875
0.1806357 0.48719 2.408543
-0.76996 -0.1070971 2.44859
-0.01594484 -0.7375518 2.361012
-0.3185135 -0.2505644 2.478546
-0.5142462 -0.8243346 2.43521
0.8144834 -0.6102856 2.504588
0.3291054 0.2992326 0.9161159
-0.00627002 -0.2262958 2.436162
-0.9962709 0.01675653 2.455523
-0.9996542 0.0174532 2.46333
-0.9895082 0.01598714 2.437169
-0.1768939 -0.2088476 2.078891
0.9294081 -0.6052378 2.453474
-0.3407924 -0.7276151 2.360193
0.9460477 -0.7422424 2.157766
-0.2642676 0.1537633 2.347604
-0.5079746 0.1613826 2.240623
-0.9003646 0.3188882 2.161493
-0.8156031 0.2308636 2.07302
0.5572724 -0.7281878 2.203515
0.1578806 0.6954728 2.190317
0.02023905 0.1123157 2.226589
-0.6655315 0.1185028 2.212173
0.06095541 -0.7996689 2.296879
-1.050909 0.2161019 2.320635
-0.9940617 0.2064757 2.198791
-0.4082063 0.08442 2.243086
0.5978374 -0.6901628 2.315631
0.580757 -0.6755496 2.264182
0.1358316 -0.7464952 2.312155
-0.1034116 -0.007491242 2.309957
0.65871 -0.6437588 2.193325
-0.03795732 0.0419269 2.248547
-0.06364375 -0.06273804 2.356883
0.4291256 -0.6773495 2.275651
0.05959841 -0.1036987 2.379298
-0.7687163 0.2457378 2.073645
0.3261063 -0.7937884 2.228
0.01438724 -0.7371574 2.086709
-1.057227 0.2182498 2.334832
-0.7762707 0.07515915 2.177494
0.2911314 -0.7320276 2.279608
-0.002785275 0.06337367 2.246928
-0.8054814 0.1144201 2.099018
-0.09335776 -0.1124375 2.357245
-0.06349081 -0.02484711 2.341936
-0.6064312 -0.06932996 2.28707
-0.8208962 -0.1165154 2.266707
0.02417105 -0.2453488 2.504362
0.171465 -0.7147155 2.458319
0.1711775 -0.7091605 2.43401
-0.04333299 -0.6763306 2.377693
-0.2858807 -0.2928331 2.498872
-0.5550261 -0.06580795 2.312184
0.3544878 0.5322633 2.188991
-0.1091184 -0.7369956 2.393498
-0.2340321 -0.2213047 2.437248
-0.5756549 -0.211827 2.395621
0.6663764 -0.6279004 2.446913
-0.9725142 -0.1736959 2.458412
-0.3077771 -0.1037912 2.404035
-1.014213 -0.1703257 2.484511
0.2196313 -0.7192624 2.087899
-0.8971784 0.1022758 2.001655
0.418019 0.6647779 2.404217
-0.1503842 -0.1526795 2.229104
-0.1782947 -0.1265879 2.363753
-0.09358037 -0.2199677 2.369246
-0.4451326 -0.340146 2.571726
0.2978721 -0.6753554 2.459754
0.1975484 -0.5852968 2.349229
-0.7862127 0.4346672 1.966696
-0.807844 0.4563811 1.872299
-0.1307659 0.1522277 2.159485
-0.1412589 0.2394537 2.10016
0.8598918 -0.6480551 2.017039
0.3610457 -0.7449793 2.320325
-0.460206 0.5425896 1.879413
-0.552142 0.6082679 1.911582
-0.139356 0.515888 1.851913
-0.722024 0.6213613 1.918758
-0.2728944 0.5758138 1.923122
-0.6652704 0.5036035 1.964283
-0.1119572 0.5432129 1.667322
-0.2511041 0.4735013 1.97208
-0.07386459 0.4939353 1.929491
-0.238821 0.4550184 1.896189
-0.1650034 0.4005714 1.978369
-0.8324518 0.5922994 1.983224
-0.3014053 0.4098973 2.179923
-0.2594336 0.3676063 2.040118
-0.6815274 0.4755075 2.023803
-0.2929542 0.3402107 2.091975
-0.9093971 0.4497088 2.085377
-0.4527557 0.2201826 2.251009
-0.7226328 0.6039625 1.93911
-0.3377103 0.3356847 2.072618
-0.8992872 0.4711944 2.088134
-0.2327156 0.3499077 2.211945
-0.5469266 0.301901 2.127381
-0.5186617 0.241431 2.2167
-0.1801214 0.4098568 1.926041
-0.6426774 0.2435541 2.144031
-0.5190244 -0.3091464 1.120678
-0.4877489 -0.2000717 1.057987
0.00433664 -0.1520429 2.512011
-0.3439012 -0.1508709 2.400259
-0.3039125 -0.2232449 2.452102
-0.6805075 -0.1837897 2.341592
0.7048075 -0.6888494 2.349822
-0.007076829 -0.1873517 2.379698
0.05989517 -0.6729183 2.338442
0.4036639 -0.7178006 2.065246
-0.9330648 0.3935821 2.208005
-0.7719077 0.2072229 2.165558
-0.8711951 0.1642958 2.324542
-0.3119785 0.01552476 2.270157
-0.8370472 0.004575189 2.391461
-0.7349423 0.02580486 2.157211
-0.06420673 -0.7592013 2.298681
0.172772 0.4197939 2.077817
-0.6963481 -0.0447211 2.385675
0.08511406 -0.733043 2.343142
0.5649559 -0.648804 2.269683
-0.530775 -0.7328083 2.198562
-0.4739206 0.1658868 2.292893
-0.2907518 -0.005830395 2.282237
-0.6676273 0.08491908 2.37715
-0.520512 0.08443648 2.277196
-0.543378 0.3829817 2.15628
-0.6582544 -0.4880855 1.463508
-0.1909703 0.456369 1.965487
-0.5826449 0.4582135 1.952255
-0.6790001 0.4359958 1.992339
-0.8532864 0.3383577 2.219978
-0.8151605 -0.1153387 2.178324
-0.1790052 -0.7607459 2.299624
-0.4347817 -0.7776191 2.243424
0.1583059 0.4435834 2.513594
-0.104869 -0.7285051 2.365194
-0.733698 -0.2449231 2.33187
-0.2971393 -0.3224419 2.404167
-0.1068318 0.2252133 2.131539
-0.3854896 0.2512423 2.256041
-0.7733521 0.341574 2.045597
-0.5423515 -0.4257115 1.242154
-0.3860568 0.6937112 1.954204
-0.3024363 0.4121393 2.186257
-0.1151725 0.2403278 2.053548
-0.8712775 0.2844705 1.974744
-0.1607572 0.1211622 2.351633
-0.1000807 0.1294463 2.222864
0.59569 -0.7865303 2.447413
-0.7001236 0.4712064 1.964164
-0.1116478 0.5130213 1.898677
-0.2679802 0.5188132 1.917554
-0.3395303 -0.1302085 2.424815
-0.4123361 0.3579161 2.07478
-0.89624 0.2536304 2.2716
-0.9008189 0.2223916 2.240275
0.05672476 0.03751262 2.254352
0.1919633 -0.7438906 2.251895
-0.1837485 -0.005829193 2.304728
-0.1276094 -0.005812614 2.240392
-0.4343002 -0.02923503 2.334666
-0.5537329 0.003086981 1.227193
-0.3866284 -0.1302571 0.9697306
-0.4812733 -0.08919574 1.135347
-0.4858879 -0.4394599 1.325106
-0.4587786 -0.3345661 1.213235
-0.4435735 -0.1187623 1.079574
-0.55718 -0.3918932 1.231507
-0.6338267 -0.4432669 1.39646
-0.6053274 0.4772002 2.028456
-0.9158219 0.4887379 2.054039
-0.4886348 0.3916164 2.166215
-0.3557926 0.3151381 2.083686
-0.6860888 0.3604352 2.107299
-0.2578709 0.1626885 2.025234
-0.4670963 0.2467163 2.164307
0.03976564 0.1405313 2.147181
-0.1561807 0.1979421 2.055887
-0.2929057 0.2715355 2.120659
-0.6623 -0.4978444 1.542343
-0.1202281 0.5801217 1.778018
-0.09608813 0.4937802 1.983353
0.3177401 -0.7281003 2.369132
-0.100722 -0.08000442 2.457359
-0.1882658 -0.1321361 2.483256
-0.6894438 -0.04238628 2.372264
-0.5480261 -0.1011115 2.260221
0.8690792 -0.6665994 2.526969
0.8158714 -0.6264336 2.373096
-0.2074341 -0.2463183 2.44076
-0.7662918 -0.2472226 2.246218
0.6422101 -0.641188 2.472874
0.6367533 -0.6432428 2.469019
-0.2132916 0.4607893 1.523027
-0.459668 0.3316219 2.213005
0.8054607 -0.6395251 2.234076
-0.7870471 0.2199544 2.081104
0.2906645 -0.7264518 2.264612
-0.5570316 0.2096528 2.195494
0.1990733 -0.7871213 2.382889
-0.3633592 -0.7879698 2.288638
-0.5931927 0.01631167 2.371643
-0.5085515 0.01104255 2.336894
-0.5925403 -0.2140058 1.281466
-0.6062313 -0.1861853 1.291624
-0.5611833 -0.4354788 1.392344
0.04467456 -0.1445295 2.588001
0.04305787 -0.1330445 2.411767
-0.2004811 -0.1820627 2.393122
-0.6944929 -0.06231842 2.473481
0.004195472 -0.3052193 2.521757
-0.2305417 -0.3015181 2.531565
-0.7814434 -0.192285 2.498419
-0.01138201 0.3452146 1.985574
-0.9831083 -0.7269552 2.158965
-0.5473857 -0.4325298 1.31073
0.835792 -0.5587488 2.173407
-0.342755 -0.7281682 2.366409
-0.5569904 -0.06502952 2.319171
-0.3787036 0.005527015 2.348355
0.9674619 -0.5726148 2.560701
0.6272927 -0.5377693 2.365885
0.8891953 -0.5218978 2.337597
0.7354909 -0.5674645 2.592735
0.3958643 -0.5940542 2.359465
0.7707422 -0.523294 2.527697
-0.6631515 0.2530335 2.120203
-0.3071815 0.04769345 2.394548
-0.1934742 0.04666848 2.271224
0.08053145 -0.01559382 2.212798
-0.4788474 0.1193468 2.554813
0.07747755 -0.01993674 2.112615
-0.2035996 0.005449279 2.272028
-0.4173398 -0.03272058 2.436471
1.144777 -0.5532386 2.565434
-0.4023049 -0.1984236 2.438373
-0.1053982 0.5664793 1.8795
0.05821837 -0.2410316 2.324873
0.01037626 -0.4383295 2.579434
0.1945344 -0.2459506 2.232105
-0.09997298 -0.2703183 2.514688
-0.5237454 -0.2277614 2.359917
-0.5615081 -0.2416217 2.516425
-0.3148092 -0.3861829 2.540565
0.05367083 0.3897834 1.967209
-0.5186906 -0.2415915 1.121491
-0.1647397 0.3935347 1.962577
-0.317948 0.3700819 1.997984
-0.3203602 0.3222274 1.97974
-0.4471957 0.3452767 1.815352
-0.4911791 -0.1411126 1.119835
-0.6051981 -0.1729382 1.367908
-0.5321883 -0.1585368 1.181845
-0.6227346 0.007354293 1.296918
-0.4658311 -0.1231263 1.129008
-0.5222036 -0.3403363 1.339116
-0.4722382 -0.1243049 1.146817
-0.3592427 -0.09879941 1.2631
-0.3335296 -0.234407 1.25788
-0.3682892 -0.2987434 1.51275
-0.2897176 -0.3518001 1.229189
-0.3108889 -0.2953051 1.315301
0.2002315 0.2721649 1.923171
-0.2638632 0.2944016 2.080981
-0.2650547 0.2480757 2.087784
0.1685376 0.02931557 2.38413
-0.7384109 0.2949601 2.047508
-0.05832805 0.1017763 2.158642
-0.2532272 0.2023894 2.303126
0.04157219 0.007775213 2.130233
-0.5169648 0.2525887 1.97016
0.09031218 0.03602489 2.382404
0.2409292 -0.08722906 2.309804
0.18801 -0.1026085 2.168672
0.2077257 -0.1748601 2.233222
0.2222261 -0.2103164 2.149532
0.1908668 -0.3353453 2.293382
0.9718766 0.4544884 2.398318
-0.4540786 -0.1226366 2.392358
1.05556 -0.6957284 2.376039
0.9895371 0.435687 2.292273
0.4685506 -0.7056388 2.259744
-0.06828878 -0.3553534 2.425068
-0.1901009 -0.3527586 2.411433
1.048322 -0.656081 2.638112
-0.04676669 0.370151 1.96939
0.0793079 0.2668722 1.984813
0.1880027 0.1573029 2.188535
0.2140804 -0.5302607 2.42733
-0.4802326 -0.2503396 1.210368
-0.4009205 -0.05341136 1.017731
-0.4303366 0.04319981 1.069267
-0.458696 -0.2748984 0.9984188
-0.4361483 -0.2828755 1.010012
-0.4460397 -0.2939322 1.255326
-0.3939067 -0.2781183 1.121975
-0.3978469 -0.419473 1.343499
-0.3798682 -0.3477644 1.259839
-0.4559694 -0.2984489 1.282599
0.3423249 -0.01936071 2.044851
0.3522087 -0.01797192 2.111482
0.3180914 0.001223041 2.021284
0.3340729 0.02595416 2.026079
0.3355809 -0.09335699 2.20683
0.3893998 -0.2335295 2.201777
-0.4120656 -0.1762733 1.204888
-0.4004982 -0.03161132 1.155611
-0.3649707 -0.1189194 1.097346
-0.3905411 -0.128059 1.169812
-0.403638 -0.1308755 1.210508
-0.5252982 -0.2484614 1.302996
-0.5259419 -0.311041 1.320545
-0.4409795 -0.4264539 1.24253
-0.4482553 -0.4329815 1.263481
0.09038512 -0.413154 2.480077
0.1095564 -0.4122186 2.3025
-0.6659289 -0.3585346 1.425997
0.3475784 -0.1720528 2.258218
0.8748879 -0.7107589 2.310095
0.1603447 -0.1742213 2.176315
-0.4301 -0.2640553 1.118536
-0.4314969 -0.1738526 1.095123
-0.4236468 -0.2255113 1.10607
-0.4245679 -0.0825745 1.054281
0.209892 0.04285581 2.014163
0.07401802 0.224473 2.022398
0.1833071 0.1498956 2.120968
0.1881597 0.1254691 2.238314
0.2456931 -0.04157525 2.10517
-0.5193515 -0.163875 1.14148
-0.5266558 -0.1384972 1.169166
-0.499632 -0.3220875 1.229713
-0.5081833 -0.2753216 1.100001
-0.525208 -0.3908575 1.25755
0.5609792 0.008582744 1.927515
0.5327049 0.07446231 1.928543
0.3620688 0.1532172 2.060273
0.6430621 -0.2516845 2.299404
0.4486333 -0.1624057 2.086606
-0.4158768 -0.3212195 1.083429
-0.3429462 -0.3249122 1.190237
-0.3713263 -0.3409187 1.301598
-0.3349591 -0.3095877 1.180011
-0.3500769 -0.2735052 1.237893
-0.3469987 -0.2993812 1.28809
0.3487922 -0.2303166 2.116389
0.468951 -0.434735 2.285223
0.4604854 -0.4227067 2.231185
0.4467829 -0.5208263 2.413194
0.276244 -0.4793732 2.370282
0.0888218 -0.5445263 2.390525
-0.4957126 0.1190954 1.169896
-0.4363118 -0.3280443 1.261284
0.3038476 0.1333199 1.834145
0.2817788 0.5167646 1.806506
-0.3448232 -0.2547609 1.197744
-0.3470134 -0.3535112 1.216306
-0.3782871 0.1451631 1.23043
-0.3523038 -0.4231044 1.28566
-0.3235917 -0.08912921 1.14553
-0.3401785 -0.0950226 1.198012
-0.2958579 -0.1324775 1.08943
-0.32042 0.2061379 1.239074
-0.3058957 -0.4050416 1.267687
-0.3061014 -0.249731 1.264787
-0.4994467 0.2366284 1.073626
-0.4077605 -0.2960419 1.085644
-0.4387198 -0.229148 1.113533
-0.4237825 -0.2367372 1.0781
-0.4039448 -0.212028 1.029653
-0.434256 -0.2630444 1.162667
-0.4249105 -0.1188103 1.198699
-0.4176113 -0.2188377 1.186808
0.5086091 0.2853105 1.756665
0.62541 0.3508961 2.165839
-0.4541089 -0.225472 1.173773
-0.4426202 -0.3289507 1.212786
-0.5556993 0.07864615 1.233625
-0.5561153 0.07981147 1.233896
-0.4855857 -0.4206581 1.370448
-0.4775144 -0.09275437 1.180634
-0.4306836 -0.3575724 1.214491
-0.4352855 -0.2942297 1.186536
-0.2279899 -0.2402234 1.409904
0.555312 0.4093113 1.507754
0.5746586 0.4248452 1.564042
0.6099413 0.4500153 1.660276
0.5181379 0.2499146 1.22159
-0.186419 -0.4254492 1.556584
-0.1835604 -0.4209029 1.542628
-0.4385136 -0.1730953 1.267601
-0.3756824 0.1453525 1.275615
-0.4648568 -0.1506917 1.37996
-0.4637959 -0.1509874 1.375534
-0.477047 -0.2484124 1.346857
-0.491222 -0.3637511 1.338887
-0.5099658 -0.0901463 1.157508
-0.46703 0.02632131 1.184817
-0.4277262 -0.2238055 1.248669
-0.5506701 -0.2339815 1.247084
-0.4974964 0.1150384 1.200372
-0.5311996 -0.03339569 1.2735
-0.5511823 0.2096048 1.192064
-0.3447404 0.06769735 0.9728217
-0.2163692 0.159916 1.204991
-0.2332081 0.1010747 1.35054
-0.2338362 0.1016993 1.350541
-0.2561939 -0.1736221 1.570532
-0.3863651 -0.1962396 1.15369
-0.3886894 -0.1745645 1.194246
-0.3635742 -0.2684338 1.184858
-0.3534559 -0.3964203 1.17691
-0.4672428 0.2738504 1.05601
-0.2847607 0.1525283 1.23397
-0.2795318 -0.2682766 1.186865
-0.2766269 0.1486574 1.25639
-0.257892 -0.1408417 1.286876
-0.2467948 0.08755396 1.237378
-0.2376432 0.2487664 1.306575
-0.4841638 0.005682768 1.045943
-0.475605 0.006105771 1.028472
-0.454152 -0.02143209 0.9793074
-0.4651476 -0.2871121 1.096771
0.7386321 0.2860892 2.051881
0.5650503 0.2588899 1.812699
-0.4361618 0.213823 1.121719
-0.4359467 0.2136375 1.136371
-0.4610849 -0.1731496 1.083709
0.6660664 0.279656 1.628021
0.7642396 0.1231406 1.709828
0.5459936 0.3452445 1.622006
0.630461 0.248295 1.642362
0.7163158 0.221774 1.88133
-0.3372707 -0.03623763 1.335063
-0.3154085 -0.1777496 1.303967
-0.2725397 -0.1491172 1.357522
-0.2035717 -0.2117793 1.486551
0.7183732 0.476109 1.743503
0.1758532 0.5445588 1.667604
0.1704796 0.613749 1.770494
0.1795756 0.5372815 1.724529
0.2827401 0.5186515 1.811968
0.3355617 0.4858369 1.798792
0.4171302 -0.5661892 1.943129
-0.4236665 -0.01794174 1.052931
0.8630712 -0.0509014 2.012709
0.3489161 0.2823127 2.107437
0.3684336 0.1556678 2.080364
-0.4606448 -0.1860393 1.167417
-0.3728069 -0.1849732 0.9738491
-0.4521187 0.1661119 1.148233
-0.4400378 0.2120936 1.11259
-0.4674922 0.2001996 1.129815
-0.4673958 0.1116674 1.103533
-0.3370412 0.1519778 1.234888
-0.3338592 -0.1880369 1.197984
-0.2887959 0.1903985 1.238683
-0.3094333 -0.1743284 1.279918
0.8140825 0.3823622 2.008499
0.6983954 -0.6372974 1.890869
0.708185 -0.5813006 1.833459
0.7697943 -0.5770309 1.982667
0.2973043 0.5508616 1.920282
0.8741596 -0.5819055 2.11881
-0.09372251 -0.6563047 2.129349
0.3227119 0.261384 1.958006
0.3194737 0.2150374 2.063686
-0.5434859 0.07752141 1.206325
-0.5290082 -0.2254122 1.198499
-0.314964 -0.3092334 1.603658
-0.5234491 -0.3471908 1.234909
-0.4256184 -0.2753355 1.053402
-0.4026047 0.1148467 1.198077
-0.3822209 0.5761977 1.75252
-0.1283145 0.3391223 1.95148
0.07574552 -0.6602744 2.114949
-0.4886237 -0.2544646 1.379353
-0.4781817 -0.2079303 1.608522
-0.4760678 -0.01150324 1.189945
-0.4779381 -0.09292399 1.176332
-0.4735504 -0.1248599 1.151937
-0.418842 0.1712257 1.181864
-0.4223218 0.08132102 1.159328
-0.417548 0.1395189 1.185398
-0.52618 -0.02751562 1.366163
0.9004971 0.6405043 2.030779
-0.4213801 0.6291257 1.911333
0.4903364 -0.7058394 1.98315
0.1856494 -0.6182476 2.122335
0.8708174 -0.459883 2.061329
-0.09132363 -0.6341817 2.064802
0.1762712 0.5329748 1.855464
0.2950837 0.4141145 1.689677
0.4186142 -0.493524 2.171821
0.2056206 -0.5351415 2.093802
0.409431 -0.4765514 2.207186
0.397137 -0.4787084 2.296758
-0.2233947 -0.6424981 2.337321
0.9286386 -0.3121656 2.458741
0.7839183 0.471325 2.041204
0.3626352 0.1528484 2.057605
0.8378131 -0.3919856 2.036924
-0.4693012 0.5096868 1.949733
-0.4339243 -0.4908621 2.523943
0.3644144 -0.3088016 2.102815
0.9424311 0.5494251 2.195312
0.022583 0.5885043 1.803001
-0.1052048 0.5483896 1.736263
-0.2030499 0.5637041 1.762196
0.6948341 0.404109 2.62723
-0.1390427 0.2879944 2.026018
-0.6257738 0.3239015 2.123901
-0.7052228 0.2794538 2.074353
-0.4205863 0.08834931 2.325329
-0.2153659 0.07746795 2.058355
-0.7252175 0.2020311 2.113675
-0.4092942 -0.6921583 2.257727
-0.2720202 0.4868236 1.862197
-0.6721914 0.611624 1.874942
-0.7757546 0.6146737 1.756663
-0.8160021 0.5266851 1.965553
-0.2507268 -0.7067641 2.568434
0.5090785 -0.3199569 2.489835
-0.3708766 0.5979754 1.799075
-0.3516567 0.6002706 1.833371
-0.1657329 0.3642316 1.656626
-0.6746727 0.6180866 1.834025
-0.6689684 0.6100938 1.865354
-0.4221642 0.4481741 2.187511
0.2287065 -0.5766749 2.297162
-0.5327591 -0.6392949 2.195919
-0.8788858 0.5669918 1.974854
0.08373979 -0.7203841 2.291237
0.2132351 -0.716771 2.208478
0.2118399 -0.5241061 2.405198
-0.1205704 0.5811954 1.781537
-0.3921533 -0.6280236 2.282686
-0.3958377 -0.6317748 2.296087
-0.389404 -0.5800211 2.274096
0.5614768 -0.6407722 2.245826
0.4306452 -0.6480275 2.578677
-0.2141415 0.07811017 2.058903
-0.4798979 -0.3812823 1.158086
-0.3931357 -0.3010249 0.9342515
-0.403443 -0.1028727 0.9553332
-0.3961328 -0.2834831 1.011853
-0.4066318 -0.0574725 0.9639332
-0.3980563 -0.1181716 1.039752
-0.4116124 -0.04088295 1.049614
-0.3754094 -0.2341394 1.067527
-0.3348181 0.5311221 1.82347
-0.4398687 0.480878 1.838618
-0.4268548 -0.2946759 1.120277
0.0838556 -0.5958386 2.37218
-0.2075402 0.2043689 0.6485623
-0.501304 -0.4206553 1.367851
-0.4440222 -0.1118017 1.128713
-0.3259757 0.01707399 2.369138
0.1989931 0.3243293 1.709823
0.1911605 0.3674251 1.793959
0.2723014 0.1850251 1.743038
0.3706638 0.0071116 1.756063
0.2749114 0.02972313 1.768518
0.3706409 -0.01670303 1.784049
0.3949068 -0.1443726 1.812347
0.2493524 -0.004107111 1.832062
0.1889614 0.06880525 1.808532
0.3897145 -0.1659772 1.831724
0.2133527 -0.01900729 1.890166
0.2034676 -0.01400814 2.035353
0.1130795 0.03226207 2.060037
0.1958122 -0.01863921 1.94838
0.03917405 0.1305013 1.993057
0.07418633 0.1024153 2.022898
-0.6395562 -0.3920343 1.77595
0.3849152 0.1871612 1.609278
0.4000378 0.1731236 1.629519
-0.3915234 -0.1867146 0.984392
-0.3598783 -0.1390432 0.8938898
-0.3916118 -0.1047623 0.9619571
-0.329727 -0.1994899 0.9029276
-0.3216774 -0.2346971 0.9119108
-0.344923 -0.2066748 0.9984376
-0.3308945 -0.126704 0.936855
-0.3250341 -0.1381057 0.9480144
-0.305223 -0.185167 0.9707884
-0.3261515 -0.1064034 0.9894728
0.5136096 0.3236007 1.521842
0.2805685 -0.2129459 1.922383
0.4310249 -0.3053799 1.938191
-0.01260788 0.110832 2.102252
0.372234 -0.3528073 1.913904
0.2353487 -0.2192963 2.252412
0.274466 -0.2662594 1.946956
0.5536182 -0.6339059 2.21729
0.2228675 -0.3430129 2.145779
0.08340406 -0.2206554 2.065958
0.1177226 -0.2283539 2.163146
0.2432221 -0.5163663 2.336951
0.2457082 -0.5674493 2.415229
0.07896559 -0.2839276 2.191562
1.049811 -0.1878318 2.355963
-0.1941682 -0.599022 2.556327
-0.3277459 -0.1517492 0.8830576
-0.2960971 -0.2419606 0.8798106
-0.3923381 -0.1345976 1.072262
-0.3269753 -0.06966958 0.9250933
-0.2753118 -0.1987526 0.9315087
-0.3074718 -0.1010221 0.9389676
-0.2211147 -0.2602211 0.9673285
-0.1770163 -0.2484358 1.032704
-0.1341413 -0.3657743 1.157481
-0.1417 -0.2349339 1.213211
-0.1151628 -0.2619174 1.111273
-0.08111505 -0.4137104 1.332213
-0.1349465 -0.03415055 1.182372
0.5170453 0.05915357 1.592651
0.5859106 -0.03392259 1.588144
0.47914 0.1161985 1.58856
0.4793603 0.1126676 1.582618
0.5054414 0.02212561 1.669004
0.5656158 -0.01746897 1.830759
0.464252 0.06959666 1.687134
0.5337434 -0.03401203 1.643333
0.6280278 -0.1772104 1.794535
0.7008768 -0.35459 1.808219
-0.3449066 -0.04862591 0.9871601
-0.3059703 -0.22003 1.027428
-0.2788615 -0.2594806 0.9970396
-0.2849632 -0.1695217 1.018526
-0.2983885 -0.08411381 1.062765
-0.2866991 -0.07934631 1.023806
-0.2668297 -0.1432862 1.058187
-0.2559159 -0.05562153 1.070236
-0.2707361 -0.4316045 1.460534
-0.4711178 0.1333741 1.137619
-0.4534655 0.09693176 1.149944
-0.3871095 -0.01638071 0.9873196
-0.382314 0.007322243 0.9768379
-0.3659159 -0.1847724 0.8111463
-0.3723955 -0.2675428 0.8868409
-0.3337722 -0.2641614 0.8537049
-0.3273844 -0.2555118 0.8683154
-0.3690048 -0.1070268 0.8550856
-0.3462123 -0.1343508 0.8621684
-0.3934879 -0.07003294 0.9079912
-0.3646877 -0.09347203 0.8712061
0.6580356 -0.3732302 1.947034
0.6674418 -0.3806129 1.982214
0.3799318 -0.01594009 1.832898
0.3624987 -0.07906803 1.883534
0.5433012 -0.5634364 1.929534
0.07617989 0.1091831 2.068571
0.08012995 -0.152297 2.173439
-0.3851833 -0.253007 0.8777266
-0.3790109 -0.1731714 0.8478441
-0.3659105 -0.2082726 0.8474736
-0.3427932 -0.2701401 0.8736614
-0.3467538 -0.2081679 0.8879718
-0.3406202 -0.2051193 0.8737251
-0.5044705 0.2388913 1.083703
-0.5122396 0.2431872 1.101117
-0.148562 -0.2949518 1.127183
0.5929957 0.2957778 1.454098
0.6376061 0.1609599 1.490438
0.6915912 0.1553367 1.604958
0.5535855 0.2836922 1.495465
0.3434428 0.4023423 1.63155
0.7138383 -0.1704023 1.848606
0.4862651 -0.1411949 1.85992
0.4389208 -0.3053578 2.250576
-0.2662326 0.05180854 1.120011
0.3356037 0.08135044 0.5652538
0.03640237 0.3402984 1.841803
-0.1089808 0.4625163 1.928228
-0.0005368184 0.2845646 1.924797
-0.01133034 0.2540351 1.938012
0.1790806 -0.03154919 1.888877
-0.07880316 0.2710511 2.035785
0.07322037 -0.01563669 2.02494
-0.2790208 0.4409464 1.994138
1.035753 -0.04522269 2.216886
0.1060352 -0.2594241 2.197865
0.1179628 -0.2944325 2.483818
-0.4533725 -0.1137827 1.149614
-0.4795429 0.02485737 1.122303
-0.4425246 0.03812063 1.072875
-0.3177144 -0.05179437 1.124117
-0.2568698 -0.05604288 1.072006
0.6511966 0.1620236 1.527879
0.5876681 0.2973454 1.593556
0.6868732 0.03309201 1.91181
0.5008547 0.06969202 1.812603
0.5430212 0.008410388 1.865341
0.5303828 -0.03541478 1.825532
0.5230362 -0.03492571 1.802307
0.3212617 0.141986 1.952659
-0.3997551 -0.1156756 0.922875
-0.3986581 -0.07105406 0.9194063
-0.4564848 0.1184121 1.132156
-0.428072 0.1111035 1.065246
-0.4154574 0.04456017 1.090314
0.1222834 0.5480932 1.580485
0.2385341 0.3108269 1.619739
0.1730125 0.3613138 1.636827
0.1755243 0.335657 1.652852
0.2038197 0.2763837 1.942652
0.178952 0.2394379 1.684583
0.1993333 0.218256 1.704242
0.1341519 0.1821992 1.777416
0.358872 0.4890966 1.462133
0.4745391 0.5495596 1.665493
0.3954196 0.3837996 1.521656
0.4839374 0.3688437 1.655971
0.4499648 0.346511 1.544929
0.4843501 0.2704337 1.563516
0.4470582 0.3242968 1.553653
0.2699201 0.4717942 1.539272
0.3083852 0.4165259 1.539603
0.4912984 0.2199169 1.632632
0.3914032 0.2913378 1.638429
0.1958112 0.4214324 1.688387
0.5159807 0.1175955 1.775323
0.4920093 0.1252331 1.750764
0.6283823 0.4257041 1.474073
0.6160117 0.2806727 1.501888
0.652061 0.2212919 1.538563
0.5720062 0.2975474 1.556128
0.7255266 0.05902964 1.683342
0.4198552 0.1462805 1.948279
0.7181016 -0.2015719 2.054373
0.2117627 0.2892079 2.036392
-0.4593101 0.1690858 1.166152
-0.3451416 -0.2826711 1.188462
0.1496617 0.2912471 1.432507
0.2151588 0.2926594 2.06699
0.2683981 0.06742591 2.0052
-0.03382353 0.2231475 2.104812
0.3280472 0.4816313 1.460593
0.3809313 0.4267524 1.553357
0.2718869 0.4790038 1.5566
1.07934 -0.2660351 2.420648
0.9376608 -0.3283017 2.44513
0.3052951 0.4110154 1.5149
-0.09444276 0.3762739 1.929883
-0.7264978 0.2574581 2.089836
-0.2637471 -0.004913158 2.096262
-0.7455298 0.2079201 2.16938
-0.7174214 0.1509089 2.109538
-0.5249395 -0.03083296 2.243816
0.02701307 -0.7715483 2.24639
-0.4901608 -0.6039475 2.254609
-0.4819997 -0.5952588 2.231961
-0.6480327 -0.5283715 2.173802
-0.8069686 -0.4186384 2.243708
-0.3755713 -0.2780245 2.334991
-0.8134429 -0.4037834 2.05965
-0.6792222 -0.4802536 2.199555
-0.6074473 -0.507725 2.249283
0.007787802 -0.7072507 2.320762
-0.2217707 -0.6393786 2.329393
-0.5044393 -0.3597433 2.272016
-0.7064155 -0.426454 2.167053
-0.3702001 -0.372785 2.332557
-0.5471315 -0.2033324 2.281965
0.2758237 0.3124932 2.434261
-0.7471262 -0.4133243 2.338212
0.1752284 -0.7561953 2.349143
0.5310249 0.185817 2.4916
-0.2232457 -0.4990766 2.346625
0.5274276 0.1103402 2.353265
0.1408276 -0.7139881 2.314727
-0.003023887 -0.6132981 2.349916
-0.4813027 -0.4856156 2.363274
0.8023447 0.05933436 2.597056
0.4861939 0.07117509 2.488261
0.5578334 0.1210445 2.206209
0.6155773 0.1369114 2.442521
0.2882134 0.1445997 0.6440802
0.2855645 0.1432498 0.6402717
0.09150378 0.2237261 1.806306
0.06878018 0.1009042 1.903361
0.7056364 0.1611594 2.154374
-0.3948691 0.4048217 2.09637
-0.4380878 0.5338544 1.989127
-0.3500914 0.3857386 1.752197
-0.3544774 0.2609995 2.286941
0.6908596 -0.04835372 2.400769
1.030211 -0.2530353 2.319375
-0.270844 -0.3783384 2.450728
0.9901402 -0.5837635 2.610747
-0.4300177 -0.1441663 2.372161
0.3279951 0.3850934 1.556015
0.3056479 0.3068081 1.613062
0.2223283 0.3880735 1.615487
0.2734253 0.2605008 1.663098
0.1763151 0.3400875 1.667409
0.2705814 0.1827568 1.728493
0.1801013 0.2490028 1.745331
0.09563848 0.3558567 1.936307
0.255873 0.08057301 1.820043
-0.4105455 0.4773597 1.833047
-0.1605455 0.2001519 2.092839
-0.2518018 0.158723 2.004137
-0.4328663 0.1107041 2.332139
0.3211951 0.1540582 0.6599439
0.3195285 0.1168291 0.6974032
0.3200838 0.09814454 0.6788822
0.3164966 0.114286 0.7169216
0.323559 0.1436935 0.7616483
0.3605649 0.07005136 0.7714646
0.3378423 0.04611551 0.6813912
0.3185744 0.04086196 0.6327196
0.3004107 0.06529818 0.6503518
0.2989834 0.1271082 0.6655992
0.3093873 0.09035932 0.7761671
0.2836044 0.08325361 0.7015607
-0.5594117 0.3692577 2.084205
-0.4192846 -0.1139274 2.232002
-0.1580538 -0.4424985 2.344175
0.706049 0.01295078 2.458007
-0.568636 -0.5620819 2.246357
-0.6703059 0.6117887 1.82418
-0.5921037 -0.649217 1.966533
-0.503059 0.4184176 2.091881
-0.6952749 0.5684421 1.889645
-0.7398887 0.5558006 1.891607
-0.8175948 0.6401881 1.845688
-0.7685734 0.6052607 1.741038
-0.4352355 -0.627301 1.896689
-0.7207805 0.5198261 1.896205
-0.8417077 0.5446118 1.895469
-0.6845081 0.3941112 2.020127
-0.3177515 0.247736 2.010161
-0.7588497 0.4590957 2.010875
-0.6810779 0.3538913 2.018504
-0.6076687 0.2870278 2.107608
-0.7067097 0.3786672 1.96708
-0.4235458 -0.594606 1.834911
0.2847985 0.1039007 0.6322796
-0.1635161 0.4472523 1.605289
-0.595876 0.4712877 2.000834
-0.7385852 -0.6872427 2.097833
-0.60498 -0.7216967 2.160545
-0.6175841 -0.6378952 2.090807
-0.8425305 0.4867383 1.87506
-0.6509753 0.4287497 2.03724
0.3137174 0.1254685 0.6093203
0.3650436 0.03618184 0.595857
0.3373155 0.08314776 0.575105
0.349059 0.06173256 0.619383
0.3445791 0.04969966 0.5884073
0.3152592 0.09868848 0.6964222
0.3205378 0.1383415 0.7875084
-0.2875629 -0.4579194 2.342607
-0.8223063 -0.2903926 2.259308
0.1364849 -0.6264135 2.416583
-0.2867378 -0.5015754 2.34384
0.2666571 -0.6920907 2.327455
-0.2515004 -0.5007514 2.299829
0.361716 0.006346135 0.4669632
0.3519982 0.06952512 0.5130054
0.3470332 0.0007521689 0.4718094
0.3668333 -0.006737298 0.4815927
0.3487467 0.03900406 0.5486633
0.3683044 -0.02090042 0.513929
0.3382841 0.04352113 0.5352106
0.3387053 0.08379392 0.5875816
0.3364941 0.08177056 0.5776318
0.3451246 0.04842079 0.5935661
0.3452645 0.04854183 0.5888715
0.3431493 0.04165512 0.5944149
0.3512593 0.04561716 0.674553
0.3313728 0.07524116 0.6734906
0.3352523 0.07637453 0.7151095
0.3376616 0.07810733 0.7362572
0.3034015 0.07836328 0.5888434
0.2883815 0.1335918 0.6392393
0.336585 0.09805816 0.6447698
0.3360603 0.1393133 0.6106486
0.342472 0.03485863 0.5759609
0.3402317 0.1422335 0.5800686
0.3200892 0.1632917 0.6272426
0.3273185 0.1564917 0.6325331
0.3209103 0.1803413 0.5982854
-0.8744446 0.4101006 1.85453
-0.9048946 0.419284 1.914778
-0.2858385 -0.6861922 2.034117
-0.4180677 0.004714039 2.114719
-0.6038213 0.1289998 2.160503
0.07332364 -0.7158898 2.067842
-0.483384 -0.1132797 2.338833
-0.8252983 0.1042882 2.093862
-0.593263 -0.01352039 2.202639
-0.8543282 -0.4236942 2.16057
-0.2450353 -0.6201389 2.319781
-0.2782087 -0.6291868 2.281331
-0.63754 -0.1408173 2.268659
-0.5792914 -0.476072 2.192799
0.7383708 0.01602267 1.826715
-0.1794604 -0.6251543 2.320509
0.3409301 -0.8192871 2.303261
0.6622532 0.4218154 2.690566
-0.2351099 -0.5348675 2.194092
0.3377272 -0.811592 2.378731
-0.3460019 -0.5284866 2.327474
0.02591777 -0.658599 2.338794
-0.8791776 -0.3578924 2.458012
0.4370911 -0.7822722 2.248749
0.4997807 0.2250912 2.55021
0.1815554 0.3498659 2.451844
0.359623 0.02515995 0.6652111
0.3588214 0.02677608 0.6620952
0.3312369 0.06804658 0.7269748
0.3193812 0.1266178 0.805538
0.305655 0.1484564 0.7880986
0.307803 0.1054601 0.8100578
0.3323158 0.05972028 0.5748625
0.3414335 0.04338577 0.5927833
0.3296419 0.1584202 0.6466333
0.3223041 0.09983058 0.650563
0.3236988 0.1579284 0.6708015
0.3294644 0.1063474 0.7669695
0.2940708 0.1198063 0.7938022
-0.7314969 -0.5354693 2.015968
-0.7195495 -0.5128757 2.025732
-0.7856954 -0.4756473 2.074321
-0.6737385 -0.5400765 2.078754
-0.5260566 0.1978694 2.088875
-0.63261 -0.5783715 2.179054
-0.5052942 -0.5918534 2.139549
-0.7810414 -0.4338247 2.134616
-0.2830984 -0.6957412 2.248466
-0.8455908 -0.3779736 2.088437
-0.635128 0.03047659 2.189173
-0.06089175 -0.763501 2.312998
-0.3749035 -0.6173056 2.224993
-0.3750023 -0.1099915 2.269773
0.0004563597 -0.7390286 2.289835
-0.1758747 -0.6934642 2.332487
-0.432187 -0.5008031 2.250212
-0.455946 -0.4843091 2.209781
-0.9047036 -0.236922 2.077341
0.5274289 0.426413 2.361062
-0.6341869 -0.3870471 2.144474
-0.4728789 -0.3973458 2.21394
-0.5466547 -0.4106958 2.386584
-0.8363268 -0.3157423 2.268742
0.0393908 -0.6315989 2.380562
-0.2326374 -0.5212612 2.338618
-0.3940523 -0.4469372 2.30003
-0.0159106 -0.5956717 2.372745
0.007165035 -0.5781783 2.38006
-0.8608804 -0.2513468 2.121696
-0.7759437 -0.6412415 1.870682
-0.7734936 -0.6159809 1.83488
-0.7837148 -0.620382 1.853563
-0.7413437 0.5514842 1.924589
-0.7601055 -0.5907137 1.914223
-0.740666 -0.6062865 1.868823
-0.9758145 -0.6389352 2.124872
-0.6745867 -0.6114816 1.927284
-0.7892048 -0.5784347 1.910114
-0.8400968 -0.532324 1.881366
0.3466882 0.0002329284 0.4719142
-0.7789223 -0.6497895 1.810195
-0.745146 -0.5700188 1.77474
-0.6970655 -0.6734079 1.990553
-0.5992217 -0.7031371 2.059283
-0.6957939 -0.5497183 1.986286
0.391625 -0.05117001 0.4177091
0.3053778 0.160667 0.7193283
0.3364902 0.09717467 0.8651854
0.3060311 0.1251019 0.8597414
-0.7871673 -0.6547117 1.825049
-0.8155124 -0.4718023 1.9659
-0.785049 -0.4829486 1.959109
-0.7283536 0.2332279 1.9819
-0.08714397 0.5922211 1.870355
-0.3055628 -0.5937836 2.225707
-0.7172073 -0.3836935 2.073088
-0.6249295 -0.3844253 2.122027
-0.9327514 -0.2882888 2.185743
-0.8885314 -0.3752382 2.420207
-0.9758612 -0.2521236 2.21085
-0.918391 -0.2649073 2.241043
-0.9292076 -0.08843051 2.093426
-0.7444693 -0.1093206 2.178011
0.3795712 0.003553767 0.595857
0.3520349 0.04204376 0.6320921
0.3577829 0.02563034 0.642022
0.371212 0.05233201 0.4869774
0.3674352 0.04159952 0.5070392
0.3668073 0.06319159 0.5095879
0.3608908 0.04056492 0.5469505
0.3551318 0.04913546 0.5221134
0.3534834 0.05545148 0.5483379
0.344511 0.08897647 0.5370535
0.3689052 0.02568441 0.5917801
0.3479476 0.04943163 0.6089259
-0.7756226 -0.5760724 1.783286
-0.6491075 -0.6461217 1.889797
-0.6009996 -0.5966532 1.800701
-0.7200947 -0.5409549 1.90711
-0.6411964 -0.586734 1.936344
-0.6465676 -0.5870883 1.951867
-0.951802 -0.4510376 2.003097
-0.4543085 -0.5518947 1.796729
-0.1310134 -0.7841769 2.217414
-0.4867392 -0.5801558 2.087927
-0.6203244 -0.4558975 2.055092
-0.9013194 -0.3421892 1.9881
-0.77908 -0.398602 1.995661
-0.7800815 -0.4014618 2.102709
-0.2829513 -0.6338212 2.306227
-0.5606767 -0.6281387 1.94577
-0.7395489 0.3884259 1.762093
-0.7260883 -0.5017397 1.892229
-0.2881164 -0.7352291 2.080126
-0.4312157 0.2667763 1.932956
-0.7505417 0.2757896 2.084629
-0.4685601 -0.5691363 2.038955
-0.6031383 0.2714668 2.171266
-0.4059612 -0.580359 2.046354
-0.5790091 -0.4943716 2.004298
-0.5519489 0.1849452 2.282275
-0.6631305 -0.4100343 2.062808
-0.9362761 -0.2700155 2.076511
-0.6041998 -0.345171 2.137219
0.004445599 0.6334873 2.587152
-0.1230743 -0.5039843 2.41386
0.345652 0.03032249 0.5176291
0.3395501 0.07490613 0.5168554
0.3754461 -0.003227267 0.4621012
0.3752494 -0.001746892 0.4675629
0.3783008 -0.04215609 0.4638844
0.3726143 0.006896709 0.4871996
0.3744535 0.01128604 0.4734276
0.3524276 0.07737705 0.4956508
0.3597527 0.08437053 0.4944131
0.3630121 0.01640013 0.5264473
0.3564668 0.0005793726 0.5040195
0.3787462 0.007169518 0.4846596
0.3644541 -0.002857639 0.4587949
0.378282 0.0120775 0.4766236
0.3759341 0.02934554 0.4891356
0.3675062 -0.02622736 0.4662979
-0.6941447 -0.5975063 1.724191
-0.6400715 0.5294731 1.639855
-0.6388061 -0.6100208 1.693331
-0.6829831 0.4469826 1.643093
-0.6209857 -0.6296487 1.831544
-0.8311231 -0.4759086 1.758963
-0.6647047 0.4258207 1.743289
-0.836165 -0.5130529 1.841063
-0.7744684 -0.01036604 2.155554
-0.09259559 -0.6230201 2.358304
-0.1555223 -0.5867651 2.328003
-0.2651363 -0.4176247 2.354929
-0.1702039 -0.5015547 2.518441
0.7135432 0.150995 2.430781
0.3747788 -0.01492967 0.4519555
0.3686241 -0.01544024 0.4792393
0.3367186 0.06466072 0.7241592
-0.5243798 0.545805 1.544339
-0.4913955 0.5234536 1.573185
-0.5146313 0.5414242 1.616524
-0.4325487 0.4956519 1.623992
-0.4287814 0.487804 1.61315
-0.5445705 0.5075765 1.640997
-0.3340883 0.4850236 1.676301
-0.515602 0.4423673 1.692204
-0.421304 0.4423213 1.691597
-0.7018861 0.4148174 1.674048
-0.4274152 -0.6481873 1.744911
-0.6995143 0.4122842 1.669062
-0.4885292 -0.7568747 2.199236
-0.7242703 -0.5014081 1.888894
-0.8146138 0.2883485 1.881609
-0.8222898 -0.4425636 1.85019
-0.4904772 -0.620105 2.035862
-0.8261212 -0.4102541 1.859045
-1.075983 -0.4839686 2.279329
-0.6168139 -0.462155 1.94352
-0.7058474 -0.4313506 2.011381
0.3737696 -0.03190587 0.4348632
0.3730979 -0.003914208 0.4617521
0.2935845 0.1624261 0.7976766
-0.6215358 -0.6663113 1.84547
-0.73183 -0.5379561 1.678615
-0.6405659 -0.6288634 1.807783
-0.6209522 -0.6172626 1.766909
-0.6457236 -0.5850442 1.820535
-0.6593548 -0.5546082 1.891122
-0.6111819 -0.5799079 1.932557
-0.6579265 -0.5240273 1.846452
-0.8576901 -0.4193479 1.848958
-0.7802514 -0.5598608 1.837543
-0.9051772 0.5737615 2.089056
-0.632763 0.3776081 1.57194
-0.893832 0.4282722 1.980051
-0.8016968 -0.4782659 1.832089
-0.6845513 -0.4713868 1.946562
-0.9200489 -0.4687392 2.155993
-0.7605436 -0.4164215 1.982922
-0.7613733 -0.3942277 1.964125
-0.4650167 -0.5557887 2.180661
-0.6574652 -0.4608019 2.077032
-0.7192083 0.05712852 1.924515
-0.5018281 -0.4586391 2.141197
-0.8818135 -0.2607003 1.979294
-0.8199235 -0.4388384 2.65437
-0.7552031 -0.2867323 2.015765
0.3594065 0.03833432 0.4723731
0.3518698 0.01847566 0.4655778
0.3602896 0.06808556 0.4970553
0.3573004 0.001519425 0.447289
0.3609419 0.006562999 0.464742
0.3115351 0.1358878 0.7389571
0.2564348 0.2653585 0.979083
0.408984 0.07873672 1.041742
0.483099 0.03480648 1.114196
-0.4717174 0.5166492 1.60166
-0.3260787 0.452966 1.534303
-0.673018 -0.5919456 1.785281
-0.7359108 -0.5151949 1.733823
-0.790951 -0.5314587 1.905102
-0.6625857 -0.5537719 1.78036
-0.518887 0.3727818 1.688033
-0.6327189 0.3850579 1.70274
-0.5714425 0.4012931 1.79671
-0.552732 0.3802474 1.792226
-0.6105887 -0.6063828 1.975931
0.3671007 0.04393506 0.4913443
0.3642574 0.000962953 0.496963
0.3647673 0.06648249 0.5357175
0.356184 0.04976546 0.5272743
0.3561683 0.02113605 0.533663
0.3508059 0.1138251 0.5582569
0.3661174 0.007306755 0.4581259
0.371009 0.02311218 0.4821913
0.3802711 0.03619399 0.513722
0.3769439 0.03730991 0.5049424
0.3760814 0.04656425 0.507781
0.3656748 0.03646744 0.4695679
0.3638373 -0.00944542 0.4736819
-0.4418652 0.2451017 1.870153
-0.3995988 -0.6817206 2.220815
-0.8014249 -0.4162815 1.925363
-0.2784406 -0.6564385 2.093772
-0.6342215 -0.4204545 2.07564
-0.2325997 -0.6626348 2.186264
-0.7569847 0.09978949 2.030189
0.02700422 -0.785288 2.283191
-0.4660171 -0.4771358 2.150766
-0.9150309 0.03640302 1.964658
-0.6130403 -0.3641473 2.135356
-0.1317024 -0.5453919 2.447098
-0.8035359 -0.2655334 2.257563
0.02007787 0.608526 2.47883
-0.6464726 -0.2447759 2.278941
0.3960036 -0.05929622 0.450299
0.3781193 -0.03715745 0.4472739
0.3921665 -0.05079532 0.417822
-0.8546805 -0.138022 2.25003
-0.4343349 -0.3971879 2.302052
-0.6678907 -0.2643463 2.506232
0.3848171 -0.03458393 0.4454468
0.3718484 0.003766135 0.4717476
0.3771801 0.002392188 0.4769506
0.3677078 0.004888278 0.4684966
0.3960729 0.04082705 0.4823344
0.3847913 -0.04146126 0.4427187
0.3758452 -0.05026775 0.4345051
0.3611417 0.08397286 0.6212315
0.339646 0.08748043 0.5763201
0.3441198 0.06366422 0.5973589
0.3837614 -0.03757232 0.4592841
0.3876093 -0.03724888 0.4394257
0.391412 -0.03429627 0.46167
-0.6125719 -0.5142585 1.948676
-0.9088795 -0.3447915 2.006413
-0.1746366 -0.6332058 2.207151
-0.033201 -0.7027982 2.280014
-0.2026747 0.6714972 2.215569
-0.7913252 -0.3468224 2.087996
-0.8955225 -0.4458651 2.627531
-0.7058478 -0.3627641 2.084674
-0.2782501 -0.5895445 2.28935
-0.9204976 -0.2745214 2.144854
-0.7321391 -0.316724 2.126577
-0.07253245 0.5622723 1.92353
-0.4333155 -0.4996915 2.508496
